-0.13230812935646258 0.3066270620106619 0.4552878685127558
-0.3070902520031129 0.12784864332147022 0.47629628722858625
0.01881975035088945 0.19306498101597358 -0.2973712524041323
0.33295486766477406 0.12849170630363754 0.2925242488226825
0.24561230011579605 0.24074506722580455 0.4142180734928782
0.1501016094310311 -0.1559072058401158 -0.13405993281364062
-0.08966055629993036 0.12495736802756842 -0.43884148030402725
0.19482191954911574 -0.13539172078014317 -0.7426773963459293
0.07425458407291782 -0.03467614699575713 0.7452001961720961
0.23567966199248 0.17514470421891518 0.6383687902571906
-0.044589116368708354 0.046010213605891 -0.5696461113616517
0.08459508210690601 0.2792268505058127 -0.8413071032707677
-0.008743484898061628 0.28756678671771924 0.6249840568277961
0.2132493245522131 0.2753283892019366 0.35750026543434693
0.2165248048439584 0.047796090654775206 0.8212146331070169
0.346450759088605 0.0703563514992219 0.24558222088323686
-0.002515732733385566 -0.036294712675626645 -0.9341659780792705
0.177985388748665 0.23746629786479367 0.5985532478070404
0.04256650033318477 -0.09330620755111414 -0.5696461113616517
-0.0017044843249314704 0.05384532471977244 0.9284302348915219
-0.271764437461928 0.18863644311744293 0.13220517423398886
0.261162509501334 0.24548285735638514 0.3438798124782544
-0.17027927036566065 0.09277041387867634 -0.3352332650700527
0.11746025029253443 0.15522370944102015 -0.2983959516689395
-0.08171923818548159 0.04775791420634243 0.7363419774058602
0.09273280336595148 0.3014052348666848 0.5417616068974177
-0.10877069162196229 0.11009630630863412 0.8849846524621567
0.11316641704777484 0.06313203639283432 -0.5257955149951788
0.18221331967064897 0.13477719591540924 0.7363419774058602
-0.21915587316182775 0.14132457747850985 -0.10883327003900414
-0.14910412884682786 0.22168210466750343 -0.08373621832025585
0.07301964253629224 0.12475776855983536 -0.6019687786330752
0.17933620980447182 0.02524769396177121 0.11492094696523324
0.02264427232530174 -0.027290681973897602 -0.5696461113616517
-0.07779671028868584 0.24256454281231185 -0.7813870542474457
0.22781633988421116 0.010708034284455882 -0.7327202489571648
-0.24413256176550494 0.24062140359951517 0.41982219542740024
-0.2758770749711502 0.1189676311802787 0.058125550854277744
0.2793012488883589 0.07219199786304675 0.657707327156396
-0.23320839703992546 0.22111347490628547 0.5551801957136929
0.14803557503245965 0.24562554774774417 -0.013257924113139774
-0.2783994843204902 0.08097600302169178 0.02347951872119884
0.22244295237078818 0.014773556346983758 -0.24103252135616424
0.03545197164691938 -0.02499933996078506 0.7452001961720961
-0.24458488118974686 0.12115874312555874 -0.8080061392353663
0.0532377456955543 0.2659655942751055 -0.03690558563243569
0.2739371729136615 0.025544202709162994 -0.030102043032649253
0.050899622971015884 0.1149722605573005 0.1884171013906012
-0.19152482651924416 0.25720360029678757 0.13112267227580765
0.27331028346479513 -0.02449443787732589 0.2900292128633314
0.0026261287075903307 0.09215796014546193 -0.5696461113616517
0.19291996005413484 -0.12861410202834575 -0.14198164398887542
0.21989929380587755 -0.1273921270428698 0.7452001961720961
-0.13351011285804285 0.16614503047949744 -0.2341824854282678
0.28056783726496476 -0.022635116050536686 -0.9341659780792705
0.15841222222502102 0.1817532294112072 0.7452001961720962
-0.12013037343235129 0.3010341902565798 0.5422360930687279
-0.25020648195645934 0.13085564404340197 0.6449159178539217
-0.07574472111267924 0.06547412788384245 -0.560791458868827
-0.3228506958266435 -0.030248353093451773 -0.8874036615532069
0.0025898659932814586 0.2356533301406019 0.7452001961720961
-0.22531050768948746 0.15441880827372026 -0.03342076139684256
-0.2525288076014893 -0.0666383744569253 0.33307196471458245
0.21177291782607713 -0.05992336320614259 0.38448096394729897
-0.14078768122026292 0.04709425684690265 0.7452001961720962
0.15560001997870343 0.16895563048573994 -0.17897248377508124
-0.1123834964642327 0.1592503236281617 -0.2984470831840558
-0.01936569863173001 -0.12908129852353428 -0.5696461113616517
-0.24172312479707578 0.22400540178318776 0.5210442447348945
0.08962327040948428 0.2446968486193158 -0.07078645007242877
-0.055905219275045236 0.3433999819743746 0.4335742413054449
0.23175618251741203 0.05140899962200885 -0.1910765555238438
0.31398103868628935 0.14840576028581778 -0.9341659780792705
0.12391861846851664 -0.2984863115266606 -0.8790144952247648
0.2073552802421646 -0.256812777079004 -0.9341659780792705
-0.10043784221750837 0.284757372346637 0.040143804188577506
-0.32613003202080293 0.05075774843876446 0.5319203501144216
-0.2274784265578392 0.1124658993513948 -0.13032300883360506
0.183896286160212 0.11040128093243183 0.18241026437137023
0.14586421166012764 0.08398336055662095 0.7452001961720961
0.3374009846314191 -0.0035329771294376235 0.485694506508482
-0.1567990623054306 0.11747529226657301 0.7452001961720961
-0.27998833915833643 0.08933727398516246 0.005521820724779153
0.15056639297286054 -0.20550597206536048 -0.7708548498123091
0.3298143708884963 0.12560992340821886 0.23335686761138813
0.2104873213216052 0.14650292500505221 0.7267620303401384
0.14296196609102896 0.08488994610483108 -0.39957014488135434
0.3116117519069981 0.14235724547633946 0.18765601423577377
-0.30475782338215857 0.11779820921628456 0.15281188730526263
0.2856800737991716 0.005437422970964216 0.6417393509798408
-0.08436237490142848 0.17270878316334545 0.8527567876428305
-0.061111551114948356 0.21808751979218174 0.8104669280202136
0.059696296011593125 -0.136483385485178 -0.9341659780792705
-0.1934563504522986 0.03980250258173063 -0.32788707561808983
-0.2112929651761749 0.049292643630319086 -0.25987929186222375
-0.2209063912915892 0.1260302442893635 -0.9341659780792705
-0.02820234177900647 0.1687146176925216 -0.6455423374177035
0.14384813648934452 -0.011775290112934034 -0.03308686157608469
-0.18092951971204488 -0.21711209502088932 -0.9341659780792705
0.14267981300129168 0.29854514440664864 0.18590505250186015
-0.17119477104418146 0.18410002387119714 0.7363419774058602
0.2612672722771918 0.20081381153123215 0.48243618558799245
-0.24010993158483415 0.20903452186950283 0.09102067358671023
-0.230348649549633 0.04166940410498648 -0.20449843640485227
0.21498893600233376 0.22360615425727126 0.06370527891998214
0.09206485554274987 0.24785403777420056 0.6972624632830058
-0.02250927599853237 0.3387536224023586 0.43081980436989004
-0.019416657198572544 0.32519573289795756 0.4924858021318418
-0.04447662597269118 0.19375110867355408 -0.3143519211531897
-0.14588228253123783 -0.027661900434887185 0.38290980270955366
-0.2080076416644811 0.06318694279048395 0.7363419774058602
0.23294955334655823 0.2523342794776054 -0.9341659780792705
-0.1479310118736055 0.04530244300954308 -0.4718649143813164
0.0802420630929829 -0.17625714495378986 -0.6713312546111059
-0.08693003204884343 0.12072772992356504 -0.45600126176699396
0.2073492882116641 -0.034632592572940164 0.39718210187550507
0.2486920962264788 0.04220125392091793 -0.14219328597454134
-0.16928611090621143 -0.037995731689482934 0.46905982815930597
0.12120704915233747 0.1599343828651248 -0.2777488803753728
-0.22767314902854152 0.22168761360120048 -0.8797063311063151
0.10274513145632179 0.22365572291993704 -0.1529744308500983
-0.07669529415880205 0.06431790931594504 -0.5696461113616517
-0.08802303817562655 0.3167666000349134 0.47944247540955626
0.0875655856251869 -0.18203186902814175 -0.6851644022424607
-0.10230494647130817 0.32552135238875307 0.4637062389085124
0.21421371047061843 0.002126504455689983 0.8322940709725049
0.08578264137208383 -0.10914511202054338 -0.2737268597408505
0.19691236055641353 -0.16100896994336092 -0.7716016319445325
0.2698445269103955 -0.004578606770863459 -0.9341659780792705
-0.04057103798240944 0.3523795874396994 0.37875978627873247
0.2682492129729935 -0.18652359575147928 -0.9341659780792705
-0.21765255827007213 0.26925848682491477 0.38741625011931485
-0.14789721147290008 0.1399534565539177 -0.2701970254879961
-0.30073353252219487 0.09299128391521337 0.07636389046069907
-0.07577854215838949 0.1123984166051997 -0.9341659780792705
0.1424178794368609 0.23504704872272505 -0.02284782984830308
0.1458422592056157 -0.08273714483575174 -0.6321117282292057
-0.17885569100226828 0.20789815330779762 -0.8118933473357351
0.19140884069643094 0.25072578070965085 0.5424203722284082
0.17359756656885167 0.0007949295310387657 0.873382318502112
0.20108628092963263 0.294475289344473 0.2962718342665414
-0.35276067731400507 -0.0035329771294376235 0.3367991958788766
0.19086425072412824 0.22428615401218818 0.04450657332271307
0.11763067428477361 0.3275064470998904 0.43383465713389613
-0.043417000418844984 0.11618180705476414 -0.9341659780792705
-0.13780687829000418 -0.011230454404447521 0.36837377139995
-0.16987366005578522 0.11027858705222615 -0.30800263527204247
-0.20638455758042076 0.11793593143837579 0.7452001961720961
0.3215129593148553 0.06185683468869534 0.5091374834475831
-0.27207769424219874 0.05800244587636407 0.6626884111485007
0.10895449213398868 0.2259354494918325 -0.13603501433076387
-0.15368113746983697 0.0358879155501716 -0.43086142889281137
0.34945355725831306 0.0626062670996005 0.408498067119303
-0.14634609958386227 0.1858169155096857 0.7452001961720961
0.26505954204275545 0.1648837530506966 0.5853277908305422
-0.04695502243011902 -0.011232177017632104 -0.5696461113616517
0.17490110687574215 0.09744751435467794 0.8465244400178834
0.2769244981207741 0.06727038211983986 0.6690891893499479
0.15160916355401427 -0.0035329771294376235 -0.463380098676495
-0.0034383102066658172 0.32689554361670975 0.487446119885105
-0.320651525268588 -0.11757982289571234 -0.9125666728562402
-0.15152843052701048 0.10972396657420756 -0.6695811618169004
0.24683453197454544 0.18114268551161952 0.04992885090369803
-0.19294219174576335 0.05477277423427977 -0.2831650334381232
0.01568922748026176 0.03592123124164659 -0.9341659780792705
0.037319593044077046 0.04397016022603913 -0.5696461113616517
0.17124757504139554 -0.022464343306412785 0.8740942055963999
-0.05889836737017664 0.20747806670487942 0.8254043007801801
-0.30338430128470795 0.15619292014581715 0.46998417510571044
0.06628265311127482 0.1731743052918525 -0.6684133877595985
0.08830606575221324 -0.014475843158477221 -0.01991730598290092
0.014060288304109434 -0.11006280321098556 -0.5696461113616517
-0.25406146512366157 0.22054337175516933 0.21085869411470032
0.19375389951674382 -0.002504005590395706 -0.1971438675458136
0.060436099241026366 0.33221528078089346 0.43910422019968925
-0.16887039721956432 0.00758807265420123 -0.072428709899506
-0.28396163850306616 0.18335649632298032 0.16882443833570804
0.3044988729248777 -0.0035329771294376235 0.040887398992939555
-0.2933725413031889 0.001008730247566159 -0.8370308933852171
-0.037941006239982526 0.021185714134560617 0.2506658172692128
-0.11832433725342728 0.14682464387789607 -0.6733036319133852
0.22728835976526218 0.2596082617472088 0.21123541221626
-0.03701456841717582 -0.03610867322908174 0.25321461694590963
-0.3394354015178772 0.050950308134410184 0.4112811941381407
0.20057089720325907 0.23703802339346394 -0.8705081419563213
0.03752325733489828 -0.15216935255568387 0.7452001961720961
-0.08208749286179814 0.01367526654946434 -0.9341659780792705
-0.24271352638013113 0.028759789384450805 -0.16662395237732078
0.2027608662009108 -0.03637259345070837 -0.9341659780792705
0.2807490610948604 0.17104344896334106 0.5276684940663329
0.04403291994943335 -0.34841938538925715 -0.9341659780792705
0.243699166320181 -0.023657215271915326 0.3641139377784461
0.11431523445873336 0.057960818157819935 -0.5631924899246933
0.10621333483769346 0.33023303554920136 0.3682297859829684
-0.14414906615880307 0.29438448868496386 0.16972145529006183
0.1514778354796025 0.2328950670584326 0.6578095474594834
-0.046016869644044694 0.27704528546377516 -0.8228934886979757
-0.031126763867361424 -0.0459134111340009 0.3087376238298673
-0.22398086549928087 -0.06555644648232639 0.2576633236430706
0.00753387533063815 0.15730099579471152 0.7452001961720961
-0.16082091949421112 0.30805733512784306 0.4367600045320487
0.2913668207101332 0.1900796013565583 0.2760453091394687
-0.2415769732386002 0.045079589062210955 -0.7607489653981981
0.02545298055296653 0.3257777548433986 0.5291762932157045
-0.198497945294386 0.03691881979491169 -0.2827064142154068
0.2604842752949819 -0.07088947035174321 0.26400093029996846
-0.20905631627706178 -0.23463288377775102 -0.8675213506235261
-0.13616031985920768 0.11662007145539563 -0.35210542929359717
0.2442400588595928 0.21361719354438627 0.14741813830547054
0.33886755140822344 0.025469796371978045 0.4969272551209261
-0.28675216461571695 0.06328835329733865 0.643304680772845
-0.022863953262160296 0.3556468069897499 0.30442651879718896
0.03694112357449431 -0.05014105288680746 0.9279992743031479
0.22532125143166673 -0.012118001200762885 0.3860569793011422
0.04354587752223149 -0.041975745205204015 -0.24839236608256926
-0.10076781923284302 0.21714271572750476 0.7363419774058602
-0.17767330459910363 0.15866836796243924 -0.15050267599365613
-0.2489191663689091 0.12205279894015109 0.6611595514400647
-0.11766812873492388 -0.003016666027139628 0.2997969012041592
0.07924719204708476 0.33217288907230225 0.24299501226399195
-0.18009782138656905 0.012663948156153421 -0.6563909355945378
0.08239357594044286 -0.22216159746082773 -0.7409254512182427
-0.15198822372072684 0.2867760544173113 0.500456189125022
-0.0863250403775839 0.1369236168341005 -0.6300112629509211
-0.20632478637093254 0.22154598166035086 0.6093293737525656
0.20530610116369336 0.016729859229828985 -0.29888199091646483
0.10199866371819497 0.2794363274955036 0.05558388995245623
0.11965338888128312 -0.2693442381524038 -0.9341659780792705
-0.007730831671358215 0.11157806876658369 0.7363419774058602
0.2456831085543287 0.17370762429041323 0.062194967753480844
0.13826839783397998 0.15194406310811712 -0.26180642269197973
0.17182259336034594 -0.29697096630307623 -0.9119990826149922
-0.21540890591397538 0.27449744495312983 0.32694474070811197
-0.16343561283849495 -0.0027256422334942733 0.8805136800663036
0.09274282041842569 0.2772958323661726 -0.8421444578548871
0.14542237821230922 0.3083207337416517 0.23944199276743763
-0.04387938021268027 -0.24958590209159973 0.7736248764293491
0.07337052588823445 -0.06827097434478374 0.08407233135733388
-0.3419971335999762 0.04246667402180928 0.23031206145399294
0.06125587042084248 -0.06583838402719507 -0.2690901266288495
0.12347385404356502 0.3324127843565919 0.38659187647280024
0.08128508664070144 0.2085545668597097 0.7452001961720961
-0.17047603151760324 0.270870254024601 -0.9341659780792705
-0.022374696859652935 0.009482573251765969 -0.5696461113616517
0.07728003229536654 0.3130052506790187 -0.8895304813582091
-0.1229149486198904 -0.10057304719020292 -0.9341659780792705
0.02969713311150942 0.2953768658033128 0.024090930687326522
0.12085633159626347 0.13690745986627156 -0.371079929051348
0.25383824541776945 0.036217903396649376 0.7314520789007904
-0.13366554892918683 0.32452626356382597 0.24655325478126097
-0.21270294034759246 0.18053050606239512 -0.010025762025950784
0.17167474598746774 0.288356210460235 -0.9341659780792705
-0.16240284175053415 -0.18222806459832444 -0.7540318921780885
0.28976118298155135 0.14709845696700521 0.5058595803716571
-0.11168922550687302 0.0017936189192813417 -0.5696461113616517
0.1571178471936859 0.022494999071972936 -0.20172878213992038
0.2949621181440918 0.18822989740039406 0.2318626773286436
0.25534897534205664 -0.07264558218400491 0.2352146416948285
0.1412259773636764 0.019853217400883746 -0.4851079016027301
-0.21676482712876072 0.1458300026200953 0.740685631536396
-0.11961108350820357 -0.31072870194216984 -0.8951229957028718
0.12662668392510615 -0.15751145334727154 -0.9341659780792705
0.05525214928662899 -0.08813990110554426 0.7452001961720959
-0.20536441429516067 -0.15802617539359318 0.7452001961720961
0.146467996179311 -0.08513830933213662 0.09929500428398609
-0.0774574386911463 0.005377950728770095 -0.560791458868827
0.22689104569847285 0.056307282605089534 0.7452001961720961
0.054583614203487694 0.3499122699193703 0.39067887134105167
-0.030184107588875266 0.20825172521449586 -0.24165051806181045
0.15573507141053844 -0.3045886339436384 -0.9106525158532419
0.2355066436450555 0.019718188130459155 -0.7465392348041326
0.05790184084597802 -0.3417526601219099 -0.9341659780792705
-0.1605182230304857 0.19465206549642977 0.7452001961720961
0.14122587240210271 -0.08312639139187276 0.08410524563224049
-0.13258441493507664 0.3201838041940669 0.37200353038730427
-0.21887237677503396 0.1281888794076847 -0.7766617832349968
0.1084747497622046 0.23881902258342774 0.7051754673939421
0.03404677769538396 0.034033845358102215 -0.5696461113616517
-0.22560522097988872 0.13674158217627913 0.7328910253676572
-0.1571573934866447 -0.0896144660534628 0.5609958865222171
0.21251098527754714 0.2562218663978156 0.1452219534923898
0.013653377332276652 0.21635573834409136 -0.25109103795772697
-0.16503996472027244 0.18341025007787295 -0.11977763262601991
0.10553346018316538 0.31994726573652005 0.17057351329594242
0.004674636301021337 0.1528149352308329 -0.4710464368215401
0.1041267987451029 0.33120013546069843 0.22630221880998858
-0.11431413150045375 0.028742676037451953 -0.9341659780792705
-0.15279962799890792 0.12782286025639714 0.7452001961720961
-0.2949059482647166 0.16781223544042667 0.17584425423289518
0.08721822093900793 0.206432654892127 -0.2301930873667454
-0.15116374818406006 -0.2732180911465174 -0.863993205953016
-0.1314133591075806 0.2998527944076358 0.4861151671228899
-0.11873564595181764 -0.015677822793895933 -0.017300265376091504
0.27017980679744474 0.08922650759508167 0.004230402798737879
0.022570215022213326 -0.14261862832936667 0.7452001961720961
-0.1440280424709723 -0.19732608948188002 0.7909193926820949
-0.031971956837679734 -0.1471137524741798 0.7452001961720959
-0.06148623999834944 0.11393062665416034 0.9003642970529117
-0.0538712139924115 0.333869531557237 0.22604944446161795
0.34541241987402754 0.0746647242214477 0.24264816001053005
-0.03767429483434322 -0.2719863742417973 -0.8020362008895576
-0.13262440332575115 0.021923308466712883 0.040642219179459184
0.24096553441959567 0.1478786291386274 -0.001188489114991379
0.19577259476601885 -0.04696318450331928 0.8478184602713529
0.15144977465425857 0.1383203513650457 0.7452001961720961
0.11443788996995354 -0.03592506205659981 0.4256279908471747
0.10440697058392208 -0.15045321608483928 0.21218661853905868
0.3227319370692094 -0.0032931172885800252 0.12679238468297768
0.2910660831241493 -0.1284790599285067 -0.8743171046035354
0.030499460539218384 0.28297196801671853 0.013510669618885628
-0.20100341629720528 0.1694205430373267 -0.06523223154657629
0.20861998217206243 0.05423560887785495 0.7363419774058602
-0.016154741383175776 0.3426438909639435 0.20459482919575325
0.35937344485653966 0.0018436317183560243 0.3741492789040567
-0.02601411907208087 -0.04178941576838813 0.21415963312860548
-0.01574433678353983 0.07172267753619033 -0.5696461113616517
0.1796302616870006 0.2362681474694009 0.02033251256577866
-0.17632341649363006 0.25212250491006977 0.5954217347290184
0.13895032262332932 0.06897473944984599 0.8854239096603579
0.08076417065538917 0.1533158851808856 0.7363419774058604
0.11461316918253361 0.23700726397874103 -0.9341659780792705
0.006393222903684279 0.19574047512208476 -0.2924151521353899
-0.18470371657820867 0.29209105932233814 0.39533662055501356
-0.029120198984972794 0.34224307416306504 0.2062619207690301
0.2972187979694269 0.1557039767963678 -0.9341659780792705
0.10015712247498539 0.02945811329667863 -0.17038997927474853
-0.08407034670955293 -0.2577646609311461 -0.796935955154894
0.06055884071048356 0.09133779291750137 -0.9341659780792705
0.007658199092659149 -0.3092309188829507 -0.9341659780792705
0.2044790483303891 -0.2047236943910531 -0.9341659780792705
-0.12449764622569567 -0.1887420547641524 0.8203576838159754
-0.1867224359822333 0.18900719062089244 0.6969801754860431
0.07452390644220087 -0.02905848002930423 -0.5696461113616517
0.14356311517680337 0.31422161860371123 0.4461656847733014
-0.006745248305078182 0.291078969471485 0.03324989748473655
0.3322643941671176 0.10463056162265082 0.4373164230681645
-0.04892566933185435 0.3153395511079567 0.522561252816321
0.015660905257011328 0.10836873067092681 -0.560791458868827
0.0010464407985766803 0.3394773303715236 0.18527321953262457
0.03217459953758353 -0.03328915122338436 -0.1403394494254358
0.061915343378206714 0.30844477686246896 0.11100518693016886
-0.19006159015104634 0.04123003218653171 -0.3376105034716252
0.301979447102 -0.0035329771294376235 0.0436309644028942
-0.17257605578227658 -0.0987613628484006 0.5934851094877287
0.26394935159961413 0.22893446385174782 0.4313835434695776
-0.21311196620332312 0.25758656593550777 0.4978922003398515
-0.14419706732012852 -0.29051345757407204 -0.8829489081666924
0.17578458806722483 -0.04745124580489443 0.08956753504357548
0.09711626032238417 0.2894217977215279 0.052002233157384836
0.21032702693413866 0.27375071270093365 0.3996640974628822
0.022357568115564545 0.051587787547697106 0.7363419774058602
0.2027549267787696 0.012309460774851682 0.7452001961720957
0.02514077658355946 0.22182767032433368 0.8158876998740853
0.18465819149911283 -0.11496362066247863 -0.11780574636250274
-0.33449791302763315 0.09125397870970808 0.19188595748427056
0.0025308519436870467 0.24520609564538667 -0.15633452043840088
0.34206175009308565 0.045474215069312596 -0.9207159365299917
-0.05111218831399795 0.06521828717360416 0.7452001961720964
-0.05035970815667678 0.1878835152667057 0.8505641622726647
-0.3101477126061854 0.17890999730054394 0.3587405122965108
-0.10398728681363448 0.15617946846392655 -0.3233795161800355
-0.07546852467261761 0.1443954835761954 -0.4366526824563037
-0.2654078363943097 0.2299994373147788 -0.9336913719620439
0.13163201190207205 0.31890893800603815 0.4469664050833292
0.0493611455307328 -0.2578857618740162 -0.7811505864436449
-0.13488068365473785 -0.19199589666077002 -0.737990530594658
0.17199752440256189 0.016444396393635912 -0.38119607057010824
-0.18778572501178795 0.27786802824254364 -0.9088550379234026
0.2604978685566633 0.21913190877674477 0.23296884248231542
-0.1218315184716925 0.2874694453317366 -0.8720437581059458
0.2895312754477997 -0.03975086721963601 -0.8356322244918543
0.11088682498088989 0.003154547774475395 -0.2545671913699269
-0.3037976391944054 0.029300656000474195 0.5786831927162663
0.08068753574585534 -0.16487268169788177 -0.655417830335524
-0.19865397703062065 0.23856535633601436 0.09724686387986534
0.2338152493651503 0.03758488180131859 -0.1630324776895402
0.14523361789360073 0.1389596542867011 0.73634197740586
0.19234183867161045 -0.12062866180820962 0.34653481568769257
0.156277729760058 -0.054809694630910746 0.8798719535547833
0.0837272430040138 0.0587695630908149 0.1228331465526759
0.18233106328704324 0.2501543701967623 0.5892742308430762
0.08803696437749173 0.04923954582792002 0.1120732264556019
0.32015534289977055 0.15079039272136324 0.2506134885673775
0.07833753021096347 0.2514654001327976 -0.0913062835785003
0.036703205908159384 -0.09966911302975677 -0.12695527221154357
0.2117996594600196 0.08565588727414992 0.3610107404729649
0.06699907708368695 0.24694079557391754 -0.0859504538188454
0.101411123178823 -0.1283411768198757 -0.6237167028033713
0.15115919616151804 0.2829291170496453 0.5553224600702165
0.014556212663538876 0.049366680229416766 -0.5696461113616517
-0.31458710323301364 0.12973202912174828 0.4429792840976913
-0.09818827388567783 -0.1488248485977668 0.8719875044237755
-0.02021475839096497 0.2532689567911316 0.7554453672246717
0.19135295669751737 0.018380392566795863 0.8557473426755499
-0.20886493232158423 -0.023543529826691598 0.4229010757510605
0.053374466506616584 -0.14229089977889284 -0.9341659780792705
0.2068442217815566 -0.05174899082916947 0.14433573361584262
-0.18381646427654977 -0.11606352262424423 -0.9341659780792705
-0.14817542768325723 -0.05755948296156974 0.6095635040144206
-0.0713352817066374 0.3074835078446955 0.11569314293681582
-0.014323819457580688 0.2881718841512013 -0.9341659780792705
-0.3293172101705527 0.06238506706118462 0.1426832864821372
0.09365875155586499 -0.33310873397970475 -0.9341659780792705
0.102434969682376 -0.15671157598381702 -0.9341659780792705
-0.20199092157759996 0.21827691399374302 0.05310566857139128
-0.03074662897748048 0.034864948786002284 -0.560791458868827
0.046117320002892315 -0.3496602145550879 -0.9341659780792705
0.2553048790151587 0.11134748987504627 -0.01688229657052698
0.15054666992957794 0.19365472959125904 0.7363419774058604
-0.16945325241329126 0.23478707730319048 0.6497644973173057
-0.2787514633918648 0.1415029185287313 0.5821523533706096
-0.25603817140236407 0.23449488557330014 0.2754727625170309
0.16470512582047875 0.08074296964132165 -0.6629121459243532
0.09134938566785702 0.3334543847204468 0.38743654799208277
-0.25861426378778823 -0.08951437886100666 -0.9341659780792705
0.2077843911908981 -0.0303218119253159 -0.9341659780792705
-0.016890884269154707 0.20042592352790856 0.7452001961720959
-0.055634131122450255 0.0719029193112872 0.7452001961720961
0.1331383833832193 -0.27192465990837 -0.9341659780792705
-0.12191524447887568 0.037610738765384 -0.5346034497924721
0.2782608602375796 0.20897830561512468 0.37305614354966987
0.01930559711664587 0.2583426047780633 0.7426385124380891
-0.19700249796249988 0.16887524381183516 -0.10853097651823834
-0.019332516233465883 0.19475061006955163 0.8493362190044631
-0.1697319516735063 0.03109588083042767 -0.41444277547068104
-0.1674647241324789 -0.04767615097323294 0.49399368595075943
0.1189850754016516 0.20801119893401138 -0.9341659780792705
0.17327936413662903 0.0035505537566516547 0.7363419774058602
-0.22456837435710195 0.09799701693899703 0.7452001961720961
-0.22987878258176475 -0.07999288245463416 0.33170056880826454
-0.18627448793358364 0.12850112366856037 -0.22484987187480546
-0.09200692993520679 -0.10725104867801043 -0.9341659780792705
0.07702120224281354 0.29832665680583853 0.09086806596825638
-0.11831937946667413 0.2153997269352206 0.7766112900389437
0.29178004647445666 0.07581477107601176 0.03028342151056866
-0.23637941828336215 0.09655773808641416 -0.7775179560562054
-0.21952392355962475 0.2587597408289794 0.17987014738095516
-0.15659450348232412 0.11228667429661628 0.8535121117699771
0.2946502179245414 0.10319562013899469 0.09616651975267144
0.11041497191019979 0.3267193122957324 -0.9341659780792705
-0.15847491950292752 0.11774034688442028 -0.9341659780792705
-0.276677647296685 0.21144356175707343 0.22456578169506888
0.1111396947376112 0.26980242599033977 0.0015610075774008855
0.09846551504216756 -0.29113948040217374 -0.8553330572005988
0.057824038207703245 0.31963755712540004 0.4976309402356402
-0.023801233603376853 0.07362623980183428 -0.9341659780792705
-0.022296172887438674 -0.03044828318801352 0.34073988381854486
-0.11975075392592656 0.014190422315246557 0.32053685270009624
0.021101833022794565 0.3455736635766402 -0.9277277352880223
0.10864746058473906 -0.14717325528278455 0.8677676128380397
-0.15715859112760125 0.07247432150628261 -0.3762527054049155
-0.012522475649743299 -0.22357147734736876 0.823914015710698
0.047792307481224636 0.21913498515574342 0.8142122358319537
0.021741600308413944 0.27285450718157406 -0.05547841899338206
0.15327183595373048 0.22666542167023906 0.6720966932102909
0.15948462359687052 0.1912072996191868 -0.7709626410252269
-0.21340212207374956 0.030192811811155688 -0.7128265821664295
-0.1422553649598868 0.15700484182455457 -0.7106192297392118
-0.3342657568120549 0.01807478341344929 0.5153622243612173
-0.35129590207934225 0.025888478004757978 0.434693719603682
0.04110969015836616 -0.010539565409147415 -0.9341659780792705
-0.219401452389204 0.22662263186375223 0.11185710874620981
0.21703860723428595 -0.08094471465093091 0.8103157596041006
-0.26203385840027704 0.05540737330627195 0.3083871162849554
0.025807785287608343 -0.16216416908034198 0.8825173696022551
0.29982969797600356 -0.16144969355840133 -0.9341659780792705
0.07491095405588485 -0.007630955282183483 0.9246589820826288
-0.18355762145817917 0.22992128762477057 0.6053285979580723
-0.013870695245112873 -0.055595261706520294 0.9291850398980052
0.15236098044550156 0.09738598258608919 0.7363419774058602
0.0523915910907638 0.35111917294319833 0.2715347847611869
0.18794705431845135 0.292554558242624 0.22703586639483186
0.2616974089844216 0.23853739093809212 0.4102426169828518
0.26513184598363415 0.18031243642177808 0.559162517212913
-0.28265125648395706 0.1995169374620513 0.3991881098481599
-0.177119262262119 -0.0055750869971187824 -0.9341659780792705
0.26615665351744594 -0.000982068283738155 0.7033911684035007
-0.05243311606310021 0.16622343633709372 0.7452001961720962
0.31598298773950856 0.1125275810674149 0.14711900927702318
-0.2799612107920874 0.05073095416003887 -0.0005641831755269714
-0.28107713886108115 -0.08721415694094643 -0.9341659780792705
0.2443125738052093 0.262015534760883 0.3293842809956134
0.0224187262361649 -0.30899855991088254 -0.8592196669208217
0.07218419009215102 0.28629629658709566 0.6012555212556715
0.024541161523512486 0.23882022858240226 -0.13923296685856834
0.07654889889897433 0.02182322759202601 -0.16771331659644048
0.10661033017397475 0.18997089896311073 0.7452001961720961
-0.028465721681288764 0.20395633548941522 -0.702359622075616
0.11942943469884448 -0.16176397792040084 0.8500572121127277
-0.11433368131751212 0.07920134412949272 -0.5235050760461211
-0.14633882087968517 0.20881066176831883 -0.12461981540101123
0.22896668331024866 0.07386883152290333 0.18856896185801747
0.3178532995924664 0.016892281914234336 0.11603184173671026
-0.013925675724144326 0.13525030545129596 -0.4963542668206527
-0.10777940586285062 0.08131163259277185 -0.5044240669634852
0.027015237894052416 0.34256294317700986 0.25497827137799833
0.1686729813641506 0.1032230078457966 0.8490260178572161
-0.15865086449721508 -0.29801038928751045 -0.9037648230223346
-0.200442422417877 -0.0361721623002133 0.4374255730627696
0.0018643104600841911 -0.0066490255479725036 -0.9341659780792705
0.0752942374044695 0.0013045645737570443 0.42362842997768135
0.10126471115566354 0.12907645363210637 0.35569319048385895
0.17890972684596027 0.2622835651703692 0.5341452339086727
-0.12186157858800328 -0.1254235331630084 0.6234550411801904
0.147573869268027 -0.30258805127880006 -0.9341659780792705
-0.051503332573905825 0.19954882444829738 -0.2568195858661274
0.13517927799951374 0.32059707217022965 0.3137826846508388
-0.22436759608612766 0.27608401299576857 0.2690098833411526
-0.23075139936047873 0.10916740873685683 0.7571036514432644
-0.0791330005041267 0.009266249214527997 0.7363419774058602
0.13806542560956708 0.01448739892596245 0.059801431094960784
0.09384395437204689 -0.07735014354942381 0.0203180776921843
-0.12158908710312483 0.3216153492116457 0.4096888769018744
0.06882753695388467 0.2516422827340609 0.7076807786127893
-0.16731328423871356 0.27102590850853137 0.5618043117380179
0.05983477782309719 0.33133399207476927 0.21866491426148205
-0.21727432454236112 0.026035639243894203 0.23272666551979718
-0.18361354198176089 0.21026323092125618 -0.03964192551216283
0.26223547693972554 0.006441139065628088 -0.7874938294687914
-0.04310197000162451 0.2829267147204317 -0.9341659780792705
-0.1056756984702064 0.19327720124862124 -0.23990855481603696
0.0006006737498036829 0.06693998509555676 -0.5696461113616517
0.07077980501279989 0.2562146931048088 0.7214883626570303
0.2814262947756998 0.10139235132367375 0.6254038815617332
-0.18565299078710307 0.20039185142862226 -0.029880640885946094
-0.13284198015544063 0.05449764264211125 -0.5105442985384159
-0.2614107643584077 0.10710958891983319 -0.8213068711769258
0.21237909595503257 0.09183586653643136 -0.178310345424116
-0.19284657887468512 0.17915635416474876 0.7330610821384927
-0.015317388162254723 0.31189705725965666 0.07493039069572842
0.10957950388934093 0.017887782333611043 -0.13070793865959432
-0.12961785450332766 0.0905213387802936 -0.9341659780792705
-0.15599662230288153 0.022062879652671383 -0.6188654374938914
0.2140470438827441 0.2728329239284621 0.4423422236595614
0.08839160082545841 0.1072269754374148 -0.48894373259785845
-0.09360047244961721 0.17561211894154263 -0.69080427488793
0.179083421522259 0.19751836409014015 -0.7989874454936214
0.002245815995356041 -0.08338633060473052 -0.5696461113616517
-0.11339168542833342 0.11339775258803204 -0.41784985925450774
0.24525668297498085 -0.11790818083466557 -0.9341659780792705
-0.0557411800816174 -0.14550862263926295 0.7452001961720959
0.19097358210298135 0.27823057732113804 0.48341025760210593
-0.10746745042979125 -0.31526158738111 -0.9341659780792705
-0.24400699922754224 0.22204588370767397 0.4787474617798114
-0.041934670944755836 0.1372083992630123 -0.4710072637240737
-0.02997235838833081 0.19990780498316965 0.8424079029895126
-0.24754789589855947 0.24428398615999472 0.3686742486741544
0.20024647099200604 0.0895707893258021 0.17231329475984697
0.24476095087457164 0.19401722106768096 -0.8726326813756313
-0.27567587286653045 0.1192961904874147 0.058048150392902
-0.016100728319861313 0.20550356138214634 -0.7028902506561651
0.18080005995292675 -0.011546704058026705 -0.12599820499620332
0.17833011968101148 0.28770604718133075 0.47835158007909256
-0.30428602831611556 0.17261074163699386 0.23235964868829267
-0.25980131063929424 0.1724196091195458 0.5863126286421304
-0.01716875675678015 0.3377036776633743 -0.9143533636725244
-0.11339929136988453 0.1348452478638249 -0.9341659780792705
-0.1017662620991828 0.3248665443428261 0.18957103444856302
0.2174342097950129 0.09103397948194761 0.19195917833678372
0.06379847631259947 -0.3101838385564356 -0.868544286810241
0.3058504437866898 0.14430568804804553 0.48367574299109983
0.17007507977945616 0.14022331568989946 -0.7239282208172949
-0.0015624647280394503 0.2520191173845221 0.7452001961720961
-0.09048100761792818 -0.018650781994144387 -0.5696461113616517
0.23086143493809305 0.2725027914208289 0.35993468338543655
-0.05378029057982625 -0.17622522896609102 -0.9341659780792705
-0.2008171343097879 -0.041021753818161116 0.8441761678259618
0.058244799772043776 -0.15488551225313807 -0.9341659780792705
-0.029170885245629233 0.019506572379486716 0.932575107976527
-0.02525392578087131 0.3565949159965653 0.3405230843595221
0.018960889563662285 -0.11248187489527169 0.3305667846827419
-0.14355017415452354 0.04052046631759728 0.8900552297301338
0.09438996353522373 -0.2277855631412171 0.7873329082660769
0.23218430692162528 0.19149031730619284 0.5869621210014029
0.21880211801802454 0.07684988625433876 -0.17676366687509357
-0.3201352295816548 0.10018400489730708 0.4719784303538138
0.04125426158286689 0.06623224351882845 0.14969933057514723
0.28040251731609983 0.09106696768493826 0.6376274549156147
-0.22411135199958002 0.14155791100038295 -0.7943434970266317
-0.10848989189054425 0.14728631010156124 -0.9341659780792705
0.2787816940443874 -0.13125412905530787 -0.8589302088202319
0.20345552608522569 0.10901349009803113 0.3412371874959192
-0.02536770010276495 0.01912871501440176 0.335874696896
-0.1457614661803186 0.1572695060406749 -0.2310560823757965
-0.08851595310030458 0.26351788912779994 -0.009953946377351957
0.10909216149148172 0.25808084058103903 -0.007051545992798717
0.07879078942535077 0.2738990606654107 0.6318257441159814
-0.04836072718732547 0.22540062072937125 -0.20658237468525834
0.134553656275676 0.13224360701008503 -0.6715735964406101
0.21337753567268997 0.27103429940580437 0.4506433242802003
0.1075170516996196 0.30151982756208495 0.09920273761514428
-0.1058587203212432 -0.10039333302602985 0.632439491046504
-0.028339314723142987 0.13846025094247372 -0.5119655795621695
0.1896476348753396 -0.14520865456649337 -0.1867550566078615
-0.23069956588706877 0.24052938055497117 0.4630867539851046
-0.2303570095940117 0.19771140292565537 0.6066640451637331
0.17502128583453913 -0.14895501986740564 0.29475787022590433
-0.010579195507520418 -0.3125269291715459 -0.8630486206457642
-0.24690143379588964 0.2582267693457789 0.3076837534365414
-0.3253784620387847 0.12373578069696228 0.321849610826245
-0.19113575646152323 -0.0049140783272830155 0.7452001961720961
0.022039322924529016 0.3396876110194415 0.1905139041271695
0.13379141933143635 0.22788836612961316 -0.08995984298385037
-0.16320993765558509 0.061431913926472945 -0.6470332486301419
-0.32103360154094124 0.1229968662601176 0.4240435894130643
0.15380701169611793 0.21418184925026196 0.7305548912913501
-0.06717557193983491 -0.23568129012136876 -0.9341659780792705
-0.15139465014199124 -0.0303750804288169 0.05977935909629786
0.0034870102760330935 0.006698902028699508 -0.5696461113616517
0.07496634727489457 0.3490588637665779 0.32272249949843096
-0.08277749989350536 0.09979499607726403 -0.5212998696215
0.198293895757098 0.054142327648827905 -0.2667054425766227
0.06817940519727131 0.008882598172822257 0.08623414340367672
0.2623701613796973 0.23586198450746296 0.41627800860245706
0.1790090954385163 0.2980406769947229 0.29609449609987976
-0.030127663014852382 -0.3105058785575202 -0.862894523785012
-0.2685422169606733 0.09852110420160454 0.008592159763324697
0.07794321986949648 -0.17862572848950697 -0.6729585758430843
-0.11077996042416771 0.13082046028790792 -0.4088318005474236
-0.1621935860086014 0.05680783482388398 -0.4135845760357234
-0.04429797040842379 0.10923142365482633 -0.5696461113616517
0.20175716895908968 -0.10746531371882838 -0.23120343532797408
-0.2774443387561854 0.011704769959444849 0.664593968036582
0.24075657965634747 0.22683619260754576 0.5162042631850454
0.09813960599912967 0.10348796886395129 -0.47764387927240076
-0.23459496593964488 -0.0035329771294376235 -0.19263719111806085
-0.0031317968543617 0.02788120011197128 0.7452001961720961
0.1250576691494145 0.14118837021691255 0.3347394672894591
-0.16212792827165506 0.027577331179090808 0.055037754148003284
-0.1885678573637753 0.07226310251480514 -0.3116093510709558
0.2998636293205509 0.04555216948487766 0.5862689276454788
0.14605557460336416 0.056060171114223345 -0.4362887762206567
-0.0977524400146888 0.2439911189019943 -0.0963631417418404
0.0715877637648769 -0.1635693974633419 0.8718535427667977
0.09282363192677157 -0.193339916935808 -0.9341659780792705
0.05492196190388428 0.07271800164433824 0.7452001961720961
0.19140217678462773 0.1306451849230013 0.73634197740586
0.15579924094422082 -0.008899332609632894 0.04277873980848096
0.004141325800395816 0.06679864742833273 0.7363419774058604
-0.17192004623523366 0.267557541009223 0.5636618642876072
0.09641753474381137 0.16017694432837443 0.7452001961720959
0.21231874770608983 0.28820051975271754 0.3293764792587312
0.17911154542768898 0.12208115272484146 0.19622608666831165
0.24029403553215847 -0.022855439039124185 0.1721339272964977
0.3002598032470049 0.016635143616756515 -0.8503693877716294
0.3369610977265499 0.02416979380463707 0.46661315800965963
-0.29825686011723246 -0.0006134427402463118 0.013132032116005492
0.29331777398289544 0.014623476692493574 0.6156100875423776
0.21028760243471736 -0.22406538141945292 -0.8554113053919709
0.24365191592904456 0.0818275118223402 0.7538750986027289
0.10039707994331717 0.23486679284451403 -0.12285142545599714
-0.2834358871218442 0.1779736471851491 0.15153714359668224
0.17201969671041747 -0.21507212583692667 -0.9341659780792705
-0.29722286007651083 0.05565219542591744 0.06005435792473072
-0.019769836108753547 0.34069655285251027 0.2437104034699883
0.19876191129770024 -0.2615641025140218 -0.8898519566282009
0.11525136374432692 0.15363750016239727 -0.3389114683529934
-0.22463112811364885 0.009217905898104622 -0.2034276358947664
-0.2415479812796521 0.06944861117208358 0.29650361688552634
-0.14228179805570912 0.23878891296831342 0.6549446835281952
0.1468057089949533 -0.2913580876318679 -0.8859473354097489
0.16885379330757672 0.20231045704979295 -0.09317529223226063
0.17491774101095403 -0.022754488944864572 0.7452001961720961
-0.07226096672109632 0.2845716977241477 0.011474834750247683
0.13467264070757037 -0.13500672043640546 -0.6670127394960551
-0.22522226263807735 0.19218909236198245 0.04854671564030727
0.22734393843240697 0.16290046649320372 0.6535547276488397
0.09497231492620524 0.19188924758745454 -0.26165447878209336
-0.1396833281424558 0.20979702297926123 -0.7747757989690792
0.11345603561785937 -0.12832442413175657 0.8766955245045449
0.06208423085005541 -0.1311506726907352 0.34695574570965654
0.009889449373739754 -0.22004744800675913 0.8283908377933967
-0.2760320381512503 0.02335713449014167 0.6654038317917548
-0.08512234637430419 0.33496215686130554 0.44407707006019675
-0.3289392892186795 0.054397517847010905 -0.9022282249107756
-0.34819013197143295 0.0012770962859881077 0.2583732932722627
0.08595797095332601 0.14447444320539535 -0.38818812689961624
0.24189377700221984 0.07741023564074759 0.7452001961720961
-0.14211080768375586 0.284072962377692 0.09151164877430676
-0.16627543844588008 0.13246293485085356 -0.2377609483177088
0.2665341063263679 0.0228822854781648 0.6950477925556905
-0.1605051795071789 -0.05770493484736783 0.5060922380499782
0.23100133124011302 0.2100753294820239 0.10034595259922122
-0.035579528409274204 -0.3153026004751306 -0.8714871749692068
0.33200422733520846 0.13290827148998238 0.34376183043922787
0.1227919824276416 0.07974693759193699 -0.4996964034150569
-0.05735740589889825 0.08372658959367774 -0.5696461113616517
-0.03167250211697673 0.21416717758159556 -0.2524548035871243
0.3361472732661806 0.03385894165056758 0.19060707087244935
0.12611430752202674 0.15524248436666513 -0.2795115317061401
0.07769655058267677 0.22646672287607011 -0.17401429542880256
-0.1524417515765351 0.20900063788182485 -0.7861467943560009
0.22694455732661797 -0.014694556098752124 -0.7308271692454359
0.14280865042338325 0.040486124367435795 -0.4939595582653463
-0.1305660821979611 0.035897407302428117 -0.5070322404242056
-0.16222691230136194 0.06834686024849002 0.8703294682354599
-0.06189929915308975 -0.19235553342367603 -0.685190530209909
-0.09163122948846306 0.3044621382262809 0.12297656872855393
0.05182698678927617 -0.026982329119595284 0.4129979622773756
0.2112090438921476 -0.10916217489406753 -0.16103075966301994
0.07550719063928106 -0.1562418757985831 0.26231557716198206
-0.26690127714322653 -0.21163827659076898 -0.9097318570527637
-0.13524555850357142 0.11408394946277295 -0.6536828713803425
0.19151272347575246 0.12225075146921434 0.20900720437953343
-0.131549338601518 0.3323610403590871 0.34457951307377954
-0.23728271039449603 0.0548462724052267 -0.16902840476490796
0.1602764392709591 0.13995468997001634 0.3223847380889359
-0.19452076356926015 0.19839198660769192 0.6873579209837349
0.06714531829086295 0.17125553612151595 -0.6658463600467023
0.3007279170565899 0.09774572445907222 -0.9341659780792705
0.11569186782008302 0.021690292294153708 -0.5696461113616517
0.20449752348354322 0.2751339880081748 0.19956086686020194
0.1182261101142677 -0.02984455334390229 0.7452001961720961
0.09889073219223544 0.19238177052274763 -0.9341659780792705
0.14731931675312107 -0.18861204954474442 -0.7463795261692479
-0.1026885782783109 0.32885522169144066 0.21173619841247404
-0.2420918072448108 0.16870576586329308 -0.843482303126177
0.09698318450502398 -0.006164166728419853 -0.0016052162318132364
-0.1165410218743592 0.2671535058983181 0.6438464683294387
-0.037604006674477136 -0.03300923274247561 0.2894882120851211
-0.07723580277457018 0.24091143870863999 0.7452001961720959
-0.026898651142984554 0.1805378426032214 -0.9341659780792705
0.05432463081617423 0.34221694354948673 0.3749199681490273
-0.20601448402181777 0.05345440772676863 0.7452001961720961
0.24434930209065148 0.2392625952356679 0.24140370999030664
-0.08740612272310026 0.053428996478531325 0.9141375964448087
0.06210138645028831 0.18671002678816476 0.7363419774058602
0.11891684993206099 0.24129714342315167 -0.041943905853572515
0.023137644038515412 0.23262976769723198 0.73634197740586
-0.35970230169765355 -0.0035329771294376235 0.2918716676905347
0.18027146957890497 -0.14875952006381127 0.26189487290188823
-0.1453465885968927 0.007794751730162737 0.37522045628168244
0.32174196148222306 0.05947293998124244 0.5098420372397118
-0.2134124365358759 -0.08377061379133463 0.2873213101365159
0.32446028877551847 0.07167657686549445 0.49144520594036245
-0.16691118023204762 0.037796734636231316 0.8742519516537268
0.1213426460111642 0.18760153271686128 -0.9341659780792705
0.029738419517228908 0.2733071580583784 -0.019742118369171693
0.2041852095065276 0.1625163035160353 -0.10371156790084654
0.19085889285735205 0.1041509539626342 -0.7181143215939376
0.26968151442514654 0.12565783298588196 0.018256400657234436
0.0410233788902611 -0.26027326028572884 0.7494462249870218
0.34624322958149667 0.08097648411769148 0.3914368071445953
-0.16318612228733295 0.25138652366547326 -0.8520871770648685
-0.3051531974525647 0.13661270201311054 0.5012490541377499
0.2458541544920949 0.20106234302748519 0.5365272184404518
0.1651306195499994 -0.08871253991784314 0.13075842003688903
-0.16602897434608138 -0.08937132138769759 -0.6662039685081416
0.009384858515542533 0.2950945076950723 0.047797001825063266
-0.1800948926381591 0.2732645755434479 0.12177782610647953
0.03802620853448293 0.29081678580201736 0.011323315547112986
-0.059207903423280306 -0.1438325615497247 0.8886945842706548
0.029729445481707376 0.09326413084709766 0.18016802404642432
-0.13365270590583117 0.05286741431104364 -0.9341659780792705
-0.06746223774159185 0.05032066999633489 -0.560791458868827
0.09008731158451187 0.2184498165931385 -0.15649036947587064
0.2677233850432507 0.021104489100480215 -0.08431066478698478
0.004062106501665895 0.1017332855703798 0.3060369864065982
-0.2224949744614311 0.19242082517880688 0.041818695985039414
-0.15858946678304872 -0.04759095181310037 0.39866427031291585
-0.04528101962876287 0.2099709323529611 -0.715615647679662
-0.20532073533572762 0.004237026964561932 -0.27103095748200423
-0.2530018424908877 -0.06977558539577797 0.318590902873934
-0.308965508285327 0.08969083858153916 0.09821329619257413
0.1547257786131526 0.057458245671312254 -0.40643375663232617
-0.25168291413658544 0.18635146917221992 0.5523719004464169
0.0887944958817694 -0.03551458326498281 -0.27554163624738537
0.3410834526445915 0.07222188481388869 0.2933388135264784
0.16415889780117723 -0.07861235909102872 -0.6551144248582584
-0.24199793462684072 0.024942925792438148 0.7452001961720962
-0.09995398743909424 0.23456336307590797 0.727921547470111
0.16624649792569576 -0.28874006374105765 -0.8966142381093073
0.15983392775054603 0.030188248785764243 0.7452001961720961
0.04903702079872152 -0.18633884048150023 -0.6697567581408139
-0.15446979888110376 0.04985275763251097 -0.4458663914156714
-0.2367715702467763 0.05532618877566059 0.7452001961720961
-0.22624894446527358 0.02206529904471637 -0.1935833683958119
0.15432081524406116 0.10393072196466883 0.38118605800459
0.1864723488696622 -0.2667214845037591 -0.8839183968673501
-0.08263607199268935 0.3323118244548555 0.24892061135226035
0.10451735908188263 0.01560196571139872 0.05662447863062718
0.13275007189501614 0.0219229440990381 0.7452001961720961
-0.21791312858224302 0.25542979986441433 0.1609275204802894
0.1809853991448755 0.20654855137735267 -0.9341659780792705
-0.2262615986605973 0.25761619427471455 0.45879463320559777
0.23069177391105752 -0.12187219406723769 0.7517025047915026
0.0043687209539348855 0.17417144587988226 -0.36673679066363335
0.1240547344787212 -0.22180693242277247 -0.7697957848794205
0.040747427278711904 -0.24681089635953982 0.7820909969599856
-0.15931120097316834 0.062161700779865964 -0.9341659780792705
0.27240708722965906 0.020818351076046616 -0.03691394240418125
0.1690347483064913 -0.009261066812031711 0.07332130100624529
-0.25121546507693787 -0.06925720302999741 0.2924326669086014
0.05565595069124097 0.12635992334882523 -0.49199836770632116
-0.34784772689875887 0.07445487371184406 0.38813999371505986
0.18985134266963957 0.2243432928070919 -0.9341659780792705
-0.20522187781203483 0.15233613301140328 -0.7805331857475899
